1.9855766296386719,-1.2604368925094604,0.22146350145339966,78.0
2.5763425827026367,-1.2023844718933105,0.195384219288826,8.0
1.4316978454589844,-0.9084786176681519,0.07744494080543518,79.0
2.0419063568115234,-0.9552427530288696,0.0515279620885849,20.0
1.4306358098983765,-0.908854603767395,0.0,90.0
2.0528957843780518,-0.9612426161766052,-0.05181809142231941,22.0
1.4244295358657837,-0.9059486985206604,-0.07709556818008423,86.0
2.0369760990142822,-0.954682469367981,-0.1533132642507553,17.0
1.4261806011199951,-0.9081084132194519,-0.1486537754535675,97.0
2.048811197280884,-0.9606564044952393,-0.25502482056617737,22.0
1.4388545751571655,-0.9172541499137878,-0.23222939670085907,79.0
2.031959295272827,-0.9523645639419556,-0.3851654529571533,22.0
1.4302042722702026,-0.9155358076095581,-0.47598183155059814,79.0
2.0398998260498047,-0.9552280306816101,-0.507893979549408,20.0
1.4414054155349731,-0.9244736433029175,-0.5802262425422668,85.0
1.5859425067901611,-0.739641010761261,-0.6936209201812744,22.0
1.1220015287399292,-0.7241683602333069,-0.6906160116195679,96.0
nan,nan,nan,0.0
1.0582717657089233,-0.6854333877563477,-0.7410041093826294,38.0
1.6680558919906616,-0.7674123048782349,-1.2190754413604736,10.0
1.1086429357528687,-0.7233077883720398,-0.9814763069152832,8.0
1.7126086950302124,-0.7800411581993103,-1.5636199712753296,34.0
nan,nan,nan,0.0
1.380699872970581,-0.6224046349525452,-1.5701698064804077,54.0
1.071558952331543,-0.7123560905456543,-1.4787628650665283,9.0
1.1166919469833374,-0.4976770877838135,-1.559127926826477,39.0
0.9592738151550293,-0.6420716643333435,-1.5752344131469727,54.0
3.6779894828796387,-1.7342385053634644,1.075701355934143,30.0
1.9639177322387695,-1.2659567594528198,0.5326520800590515,97.0
2.576657772064209,-1.2190285921096802,0.543213963508606,59.0
1.964414119720459,-1.2658134698867798,0.36007338762283325,85.0
2.475372791290283,-1.1743621826171875,0.33020564913749695,72.0
1.964406967163086,-1.2658233642578125,0.22003625333309174,80.0
2.592888593673706,-1.2316429615020752,0.19729295372962952,8.0
1.4149924516677856,-0.9114277958869934,0.0768626481294632,82.0
1.9992334842681885,-0.9519666433334351,0.05059953033924103,20.0
1.4013241529464722,-0.9036381840705872,0.0,95.0
2.007930278778076,-0.9569556713104248,-0.050831638276576996,21.0
1.3993632793426514,-0.9034087657928467,-0.07604743540287018,88.0
1.998900055885315,-0.9535265564918518,-0.15089616179466248,18.0
1.3969823122024536,-0.9028975367546082,-0.14619484543800354,97.0
2.0108261108398438,-0.9596370458602905,-0.25104448199272156,18.0
1.4138829708099365,-0.9148955941200256,-0.2291330099105835,77.0
2.0031893253326416,-0.9555939435958862,-0.3808715045452118,23.0
1.407829761505127,-0.9147517681121826,-0.4704791009426117,81.0
2.000335931777954,-0.9534003138542175,-0.4995221495628357,21.0
1.4152958393096924,-0.9213470220565796,-0.5720540285110474,90.0
1.5703954696655273,-0.7454648613929749,-0.6889342665672302,13.0
1.1170463562011719,-0.7317887544631958,-0.6906160116195679,87.0
nan,nan,nan,0.0
1.0571527481079102,-0.6949782967567444,-0.7435904741287231,38.0
1.640278697013855,-0.768244743347168,-1.2022606134414673,10.0
1.3571006059646606,-0.89932781457901,-1.2132138013839722,36.0
1.7020628452301025,-0.7892802357673645,-1.5587741136550903,14.0
1.3416812419891357,-0.8976969122886658,-1.509853720664978,25.0
1.3748717308044434,-0.6310760974884033,-1.5683503150939941,48.0
1.0680224895477295,-0.7205396890640259,-1.4806709289550781,30.0
1.111897349357605,-0.5046440958976746,-1.557139277458191,38.0
0.9524893164634705,-0.6469528675079346,-1.571158766746521,54.0
3.6779894828796387,-1.7342385053634644,1.075701355934143,30.0
1.9639177322387695,-1.2659567594528198,0.5326520800590515,97.0
2.576657772064209,-1.2190285921096802,0.543213963508606,59.0
1.964414119720459,-1.2658134698867798,0.36007338762283325,85.0
2.475372791290283,-1.1743621826171875,0.33020564913749695,72.0
1.964406967163086,-1.2658233642578125,0.22003625333309174,80.0
2.592888593673706,-1.2316429615020752,0.19729295372962952,8.0
1.4148333072662354,-0.9116746783256531,0.0768626481294632,82.0
1.9992334842681885,-0.9519666433334351,0.05059953033924103,20.0
1.4011664390563965,-0.9038827419281006,0.0,95.0
2.007763385772705,-0.9573061466217041,-0.050831638276576996,21.0
1.3992054462432861,-0.9036529064178467,-0.07604743540287018,88.0
1.998733639717102,-0.9538754820823669,-0.15089616179466248,18.0
1.3968247175216675,-0.9031413197517395,-0.14619484543800354,97.0
2.0106585025787354,-0.959987998008728,-0.25104448199272156,18.0
1.413723349571228,-0.9151423573493958,-0.2291330099105835,77.0
2.0030226707458496,-0.9559435844421387,-0.3808715045452118,23.0
1.4076699018478394,-0.9149975180625916,-0.4704791009426117,81.0
2.000169515609741,-0.9537494778633118,-0.4995221495628357,21.0
1.415135145187378,-0.9215941429138184,-0.5720540285110474,90.0
1.570265293121338,-0.7457389235496521,-0.6889342665672302,13.0
1.1167908906936646,-0.7321786284446716,-0.6906160116195679,87.0
nan,nan,nan,0.0
1.057031512260437,-0.6951627135276794,-0.7435904741287231,38.0
1.6401444673538208,-0.7685310244560242,-1.2022606134414673,10.0
1.3569436073303223,-0.8995646238327026,-1.2132138013839722,36.0
1.7019251585006714,-0.789577305316925,-1.5587741136550903,14.0
1.3415244817733765,-0.8979310989379883,-1.509853720664978,25.0
1.3747614622116089,-0.631316065788269,-1.5683503150939941,48.0
1.0677708387374878,-0.7209123969078064,-1.4806709289550781,30.0
1.111721158027649,-0.5050321817398071,-1.557139277458191,38.0
0.9522634744644165,-0.6472852826118469,-1.571158766746521,54.0
3.634993076324463,-1.7458903789520264,1.0666779279708862,31.0
1.9344441890716553,-1.2666159868240356,0.5270155072212219,98.0
2.572293281555176,-1.2395628690719604,0.5441612005233765,58.0
1.9367177486419678,-1.2676464319229126,0.35659629106521606,83.0
2.431140661239624,-1.1748018264770508,0.3253585994243622,35.0
1.9303269386291504,-1.2634693384170532,0.2171817272901535,79.0
2.5750250816345215,-1.245828628540039,0.1965988725423813,8.0
1.3832206726074219,-0.905331552028656,0.07546515017747879,82.0
1.9541202783584595,-0.9477493166923523,0.04961307346820831,20.0
1.3800376653671265,-0.9042757153511047,0.0,95.0
1.9626213312149048,-0.9531297087669373,-0.04984518140554428,20.0
1.376012921333313,-0.9026620984077454,-0.07511577010154724,89.0
1.9492155313491821,-0.9474848508834839,-0.14761580526828766,20.0
1.3757699728012085,-0.9035263657569885,-0.1446300745010376,96.0
1.9612749814987183,-0.953760027885437,-0.24564260244369507,20.0
1.3968021869659424,-0.9184195399284363,-0.22741277515888214,73.0
1.9606711864471436,-0.9530646204948425,-0.37400123476982117,23.0
1.381046175956726,-0.9117777943611145,-0.463600754737854,85.0
1.9625880718231201,-0.953167736530304,-0.491708368062973,23.0
1.3927537202835083,-0.9212481379508972,-0.5655162930488586,86.0
1.5648887157440186,-0.7569562792778015,-0.6889342665672302,8.0
1.1170299053192139,-0.7438324689865112,-0.6941336393356323,96.0
nan,nan,nan,0.0
1.0573605298995972,-0.7062841057777405,-0.7474700808525085,24.0
1.6084257364273071,-0.7678012847900391,-1.1826432943344116,11.0
1.3504717350006104,-0.9092515707015991,-1.2132138013839722,35.0
1.6599782705307007,-0.784668505191803,-1.5248526334762573,9.0
1.349993348121643,-0.9176912903785706,-1.5271289348602295,22.0
1.3748719692230225,-0.6433079838752747,-1.5738085508346558,49.0
1.069236159324646,-0.7331163287162781,-1.4902113676071167,34.0
1.1094552278518677,-0.513607382774353,-1.559127926826477,37.0
0.9511765241622925,-0.656559944152832,-1.5772721767425537,56.0
3.634993076324463,-1.7458903789520264,1.0666779279708862,31.0
1.9344441890716553,-1.2666159868240356,0.5270155072212219,98.0
2.572293281555176,-1.2395628690719604,0.5441612005233765,58.0
1.9367177486419678,-1.2676464319229126,0.35659629106521606,83.0
2.431140661239624,-1.1748018264770508,0.3253585994243622,35.0
1.9303269386291504,-1.2634693384170532,0.2171817272901535,79.0
2.5750250816345215,-1.245828628540039,0.1965988725423813,8.0
1.3832206726074219,-0.905331552028656,0.07546515017747879,82.0
1.9541202783584595,-0.9477493166923523,0.04961307346820831,20.0
1.3801954984664917,-0.9040347933769226,0.0,95.0
1.9626213312149048,-0.9531297087669373,-0.04984518140554428,20.0
1.3761705160140991,-0.9024218320846558,-0.07511577010154724,89.0
1.9493807554244995,-0.9471446871757507,-0.14761580526828766,20.0
1.3759275674819946,-0.903286337852478,-0.1446300745010376,96.0
1.9612749814987183,-0.953760027885437,-0.24564260244369507,20.0
1.3968021869659424,-0.9184195399284363,-0.22741277515888214,73.0
1.9606711864471436,-0.9530646204948425,-0.37400123476982117,23.0
1.381205439567566,-0.911536693572998,-0.463600754737854,85.0
1.9627543687820435,-0.9528251886367798,-0.491708368062973,23.0
1.3929142951965332,-0.9210050106048584,-0.5655162930488586,86.0
1.5650207996368408,-0.7566831111907959,-0.6889342665672302,8.0
1.1171597242355347,-0.7436375021934509,-0.6941336393356323,96.0
nan,nan,nan,0.0
1.0573605298995972,-0.7062841057777405,-0.7474700808525085,24.0
1.6084257364273071,-0.7678012847900391,-1.1826432943344116,11.0
1.3504717350006104,-0.9092515707015991,-1.2132138013839722,35.0
1.6599782705307007,-0.784668505191803,-1.5248526334762573,9.0
1.3501534461975098,-0.9174556732177734,-1.5271289348602295,22.0
1.3749841451644897,-0.6430679559707642,-1.5738085508346558,49.0
1.069364070892334,-0.7329297065734863,-1.4902113676071167,34.0
1.1095448732376099,-0.5134137272834778,-1.559127926826477,37.0
0.9512910842895508,-0.6563939452171326,-1.5772721767425537,56.0
3.629228115081787,-1.7744035720825195,1.0686115026474,5.0
1.9052841663360596,-1.2665865421295166,0.5213790535926819,99.0
2.5503478050231934,-1.251015543937683,0.5413196086883545,42.0
1.9010944366455078,-1.2633389234542847,0.35157379508018494,85.0
2.413968563079834,-1.1873724460601807,0.3241468369960785,72.0
1.9007450342178345,-1.2631207704544067,0.21480295062065125,83.0
2.640129327774048,-1.3000727891921997,0.20232506096363068,8.0
1.3581637144088745,-0.902502179145813,0.07441701740026474,85.0
1.9048511981964111,-0.9403950572013855,0.04851055517792702,20.0
1.3592913150787354,-0.9039385318756104,0.0,96.0
1.9133259057998657,-0.9458124041557312,-0.048742663115262985,22.0
1.3552985191345215,-0.9023003578186035,-0.07430055737495422,91.0
1.9091683626174927,-0.9441843628883362,-0.1450260579586029,21.0
1.3468166589736938,-0.8976489305496216,-0.14217112958431244,96.0
1.9233872890472412,-0.9520384073257446,-0.24166229367256165,22.0
1.3738948106765747,-0.9171286821365356,-0.22466044127941132,72.0
1.912004828453064,-0.9460254907608032,-0.3658427298069,26.0
1.3628381490707397,-0.9131137132644653,-0.45947375893592834,82.0
1.9123352766036987,-0.9449633955955505,-0.48054587841033936,25.0
1.3648918867111206,-0.9161927103996277,-0.5565268397331238,83.0
1.5825904607772827,-0.7788143157958984,-0.6992449164390564,4.0
1.0936682224273682,-0.7390236854553223,-0.682408332824707,124.0
nan,nan,nan,0.0
nan,nan,nan,0.0
1.5750731229782104,-0.7654801607131958,-1.161624789237976,11.0
1.3604943752288818,-0.9299057126045227,-1.2283599376678467,27.0
1.6200474500656128,-0.7797430753707886,-1.4925464391708374,10.0
1.3481732606887817,-0.9299445152282715,-1.5323114395141602,20.0
1.3627139329910278,-0.648980975151062,-1.564711332321167,49.0
1.0642212629318237,-0.7403773069381714,-1.4902113676071167,35.0
1.104561448097229,-0.5205050110816956,-1.557139277458191,41.0
0.9443172216415405,-0.6613516211509705,-1.5731966495513916,59.0
3.629228115081787,-1.7744035720825195,1.0686115026474,5.0
1.9052841663360596,-1.2665865421295166,0.5213790535926819,99.0
2.5503478050231934,-1.251015543937683,0.5413196086883545,42.0
1.9010944366455078,-1.2633389234542847,0.35157379508018494,85.0
2.413968563079834,-1.1873724460601807,0.3241468369960785,72.0
1.9007450342178345,-1.2631207704544067,0.21480295062065125,83.0
2.640129327774048,-1.3000727891921997,0.20232506096363068,8.0
1.3581637144088745,-0.902502179145813,0.07441701740026474,85.0
1.9048511981964111,-0.9403950572013855,0.04851055517792702,20.0
1.3592913150787354,-0.9039385318756104,0.0,96.0
1.9133259057998657,-0.9458124041557312,-0.048742663115262985,22.0
1.3552985191345215,-0.9023003578186035,-0.07430055737495422,91.0
1.9091683626174927,-0.9441843628883362,-0.1450260579586029,21.0
1.3468166589736938,-0.8976489305496216,-0.14217112958431244,96.0
1.9233872890472412,-0.9520384073257446,-0.24166229367256165,22.0
1.3738948106765747,-0.9171286821365356,-0.22466044127941132,72.0
1.912004828453064,-0.9460254907608032,-0.3658427298069,26.0
1.3628381490707397,-0.9131137132644653,-0.45947375893592834,82.0
1.9123352766036987,-0.9449633955955505,-0.48054587841033936,25.0
1.3648918867111206,-0.9161927103996277,-0.5565268397331238,83.0
1.5825904607772827,-0.7788143157958984,-0.6992449164390564,4.0
1.0936682224273682,-0.7390236854553223,-0.682408332824707,124.0
nan,nan,nan,0.0
nan,nan,nan,0.0
1.5750731229782104,-0.7654801607131958,-1.161624789237976,11.0
1.3604943752288818,-0.9299057126045227,-1.2283599376678467,27.0
1.6200474500656128,-0.7797430753707886,-1.4925464391708374,10.0
1.3481732606887817,-0.9299445152282715,-1.5323114395141602,20.0
1.3627139329910278,-0.648980975151062,-1.564711332321167,49.0
1.0642212629318237,-0.7403773069381714,-1.4902113676071167,35.0
1.104561448097229,-0.5205050110816956,-1.557139277458191,41.0
0.9443172216415405,-0.6613516211509705,-1.5731966495513916,59.0
3.5907931327819824,-1.786799669265747,1.0608773231506348,3.0
1.8721846342086792,-1.2634836435317993,0.5146151781082153,100.0
2.2954649925231934,-1.1462024450302124,0.4882769286632538,74.0
1.8656275272369385,-1.2585970163345337,0.3465513586997986,87.0
2.4056203365325928,-1.2041960954666138,0.3241468369960785,54.0
1.8671398162841797,-1.2596341371536255,0.2119484394788742,81.0
2.6220662593841553,-1.3140103816986084,0.20163097977638245,8.0
1.3290777206420898,-0.8965690732002258,0.07313597202301025,87.0
1.8669556379318237,-0.9379976987838745,0.04769818112254143,22.0
1.3384565114974976,-0.9035948514938354,0.0,96.0
1.875400424003601,-0.9434577226638794,-0.047930289059877396,23.0
1.3282947540283203,-0.897728443145752,-0.07313597202301025,91.0
1.8735523223876953,-0.9429470896720886,-0.142781600356102,23.0
1.332275629043579,-0.9014370441436768,-0.14127697050571442,96.0
1.8745230436325073,-0.9442607164382935,-0.23626041412353516,24.0
1.3449304103851318,-0.9113876223564148,-0.22087596356868744,74.0
1.8701376914978027,-0.9416695237159729,-0.3589724600315094,28.0
1.3385604619979858,-0.9104157090187073,-0.45328325033187866,86.0
1.8730157613754272,-0.9419066905975342,-0.4721740186214447,28.0
1.3467587232589722,-0.9177002906799316,-0.551623523235321,93.0
1.7554587125778198,-0.8788405656814575,-0.7798548340797424,2.0
1.0866636037826538,-0.7453886866569519,-0.6812358498573303,133.0
1.6547490358352661,-0.8264675736427307,-0.8524206876754761,3.0
nan,nan,nan,0.0
1.541832685470581,-0.7627315521240234,-1.140606164932251,13.0
1.3670287132263184,-0.9484710693359375,-1.2404769659042358,10.0
1.5888420343399048,-0.7784828543663025,-1.4683167934417725,10.0
1.3283401727676392,-0.9299842119216919,-1.5167638063430786,4.0
1.364327311515808,-0.6614581346511841,-1.5719890594482422,48.0
1.0616614818572998,-0.7496579885482788,-1.4940274953842163,30.0
1.1036359071731567,-0.529507040977478,-1.5611166954040527,42.0
0.9420337080955505,-0.6696120500564575,-1.5772721767425537,51.0
3.5907931327819824,-1.786799669265747,1.0608773231506348,3.0
1.8721846342086792,-1.2634836435317993,0.5146151781082153,100.0
2.2954649925231934,-1.1462024450302124,0.4882769286632538,74.0
1.8656275272369385,-1.2585970163345337,0.3465513586997986,87.0
2.4056203365325928,-1.2041960954666138,0.3241468369960785,54.0
1.8671398162841797,-1.2596341371536255,0.2119484394788742,81.0
2.6220662593841553,-1.3140103816986084,0.20163097977638245,8.0
1.3292341232299805,-0.8963370323181152,0.07313597202301025,87.0
1.8669556379318237,-0.9379976987838745,0.04769818112254143,22.0
1.3384565114974976,-0.9035948514938354,0.0,96.0
1.8755650520324707,-0.943130373954773,-0.047930289059877396,23.0
1.3282947540283203,-0.897728443145752,-0.07313597202301025,91.0
1.8735523223876953,-0.9429470896720886,-0.142781600356102,23.0
1.332275629043579,-0.9014370441436768,-0.14127697050571442,96.0
1.8746877908706665,-0.9439336061477661,-0.23626041412353516,24.0
1.3450894355773926,-0.9111528396606445,-0.22087596356868744,74.0
1.8703019618988037,-0.9413431286811829,-0.3589724600315094,28.0
1.3385604619979858,-0.9104157090187073,-0.45328325033187866,86.0
1.8730157613754272,-0.9419066905975342,-0.4721740186214447,28.0
1.3467587232589722,-0.9177002906799316,-0.551623523235321,93.0
1.7554587125778198,-0.8788405656814575,-0.7798548340797424,2.0
1.0867938995361328,-0.7451990246772766,-0.6812358498573303,133.0
1.6548932790756226,-0.8261787295341492,-0.8524206876754761,3.0
nan,nan,nan,0.0
1.5419658422470093,-0.7624624371528625,-1.140606164932251,13.0
1.3671941757202148,-0.9482325315475464,-1.2404769659042358,10.0
1.5889778137207031,-0.7782055735588074,-1.4683167934417725,10.0
1.3283401727676392,-0.9299842119216919,-1.5167638063430786,4.0
1.364327311515808,-0.6614581346511841,-1.5719890594482422,48.0
1.0617923736572266,-0.7494726777076721,-1.4940274953842163,30.0
1.1037282943725586,-0.529314398765564,-1.5611166954040527,42.0
0.9421505928039551,-0.6694476008415222,-1.5772721767425537,51.0
3.511716842651367,-1.7774263620376587,1.040897250175476,3.0
1.8534998893737793,-1.269307017326355,0.5117968916893005,100.0
2.2941792011260986,-1.1651289463043213,0.48969772458076477,96.0
1.8447966575622559,-1.262883186340332,0.34423327445983887,91.0
2.361968517303467,-1.2025599479675293,0.31929975748062134,8.0
1.8400527238845825,-1.259643793106079,0.20980753004550934,85.0
2.584163188934326,-1.3171286582946777,0.1993751972913742,8.0
1.3148658275604248,-0.8997118473052979,0.07267013937234879,89.0
1.8338046073913574,-0.9370676279067993,0.047001853585243225,24.0
1.3157902956008911,-0.9013591408729553,0.0,95.0
1.84015691280365,-0.9411141276359558,-0.04717594012618065,23.0
1.3015773296356201,-0.8925970792770386,-0.07197138667106628,89.0
1.8271052837371826,-0.935269296169281,-0.13967390358448029,24.0
1.3076515197753906,-0.897775411605835,-0.13926512002944946,96.0
1.8394620418548584,-0.9419881105422974,-0.23256440460681915,24.0
1.320507526397705,-0.9076388478279114,-0.21777957677841187,75.0
1.830946683883667,-0.9372573494911194,-0.3525315821170807,30.0
1.3125698566436768,-0.9058266878128052,-0.44640490412712097,85.0
1.8383392095565796,-0.940241813659668,-0.4649183750152588,30.0
1.323007345199585,-0.9147287607192993,-0.5442685484886169,94.0
1.737036108970642,-0.884475588798523,-0.77423095703125,2.0
1.0744553804397583,-0.7475223541259766,-0.6765457391738892,127.0
1.6250027418136597,-0.8251640796661377,-0.8396663069725037,3.0
1.0250718593597412,-0.7156280279159546,-0.7345380783081055,28.0
1.5219314098358154,-0.7655215859413147,-1.1293963193893433,7.0
1.1397274732589722,-0.8015163540840149,-1.0344880819320679,4.0
1.561423897743225,-0.7779779434204102,-1.4473177194595337,10.0
1.1159597635269165,-0.7921605706214905,-1.2749106884002686,3.0
1.3582541942596436,-0.6699740886688232,-1.5701698064804077,49.0
1.0540437698364258,-0.7547960877418518,-1.4902113676071167,33.0
1.1014631986618042,-0.5374757647514343,-1.5631052255630493,43.0
0.9340540170669556,-0.6732956171035767,-1.571158766746521,55.0
3.511716842651367,-1.7774263620376587,1.040897250175476,3.0
1.8534998893737793,-1.269307017326355,0.5117968916893005,100.0
2.2941792011260986,-1.1651289463043213,0.48969772458076477,96.0
1.8447966575622559,-1.262883186340332,0.34423327445983887,91.0
2.361968517303467,-1.2025599479675293,0.31929975748062134,8.0
1.8400527238845825,-1.259643793106079,0.20980753004550934,85.0
2.584163188934326,-1.3171286582946777,0.1993751972913742,8.0
1.3147088289260864,-0.8999413251876831,0.07267013937234879,89.0
1.8338046073913574,-0.9370676279067993,0.047001853585243225,24.0
1.3157902956008911,-0.9013591408729553,0.0,95.0
1.8399927616119385,-0.9414352178573608,-0.04717594012618065,23.0
1.3015773296356201,-0.8925970792770386,-0.07197138667106628,89.0
1.8271052837371826,-0.935269296169281,-0.13967390358448029,24.0
1.3076515197753906,-0.897775411605835,-0.13926512002944946,96.0
1.8392977714538574,-0.9423090815544128,-0.23256440460681915,24.0
1.3203489780426025,-0.9078693389892578,-0.21777957677841187,75.0
1.8307831287384033,-0.9375768899917603,-0.3525315821170807,30.0
1.3125698566436768,-0.9058266878128052,-0.44640490412712097,85.0
1.8383392095565796,-0.940241813659668,-0.4649183750152588,30.0
1.323007345199585,-0.9147287607192993,-0.5442685484886169,94.0
1.737036108970642,-0.884475588798523,-0.77423095703125,2.0
1.0743249654769897,-0.7477099299430847,-0.6765457391738892,127.0
1.6248587369918823,-0.8254477381706238,-0.8396663069725037,3.0
1.024946928024292,-0.7158069014549255,-0.7345380783081055,28.0
1.5217978954315186,-0.7657872438430786,-1.1293963193893433,7.0
1.139587640762329,-0.8017153143882751,-1.0344880819320679,4.0
1.5612881183624268,-0.7782503962516785,-1.4473177194595337,10.0
1.1159597635269165,-0.7921605706214905,-1.2749106884002686,3.0
1.3582541942596436,-0.6699740886688232,-1.5701698064804077,49.0
1.0539120435714722,-0.7549800872802734,-1.4902113676071167,33.0
1.1013693809509277,-0.537667989730835,-1.5631052255630493,43.0
0.9339364767074585,-0.6734586954116821,-1.571158766746521,55.0
3.460555076599121,-1.7820184230804443,1.0292959213256836,4.0
1.820610761642456,-1.2655102014541626,0.5050330758094788,101.0
2.2554423809051514,-1.1653707027435303,0.4830673933029175,96.0
1.8197191953659058,-1.2644401788711548,0.3411425054073334,88.0
2.3623340129852295,-1.223577618598938,0.32051151990890503,8.0
1.7821985483169556,-1.2383288145065308,0.20409849286079407,86.0
2.5749051570892334,-1.3351373672485352,0.1993751972913742,8.0
1.2879050970077515,-0.8948203921318054,0.07150555402040482,89.0
1.7917149066925049,-0.9314441084861755,0.04607342556118965,25.0
1.284858226776123,-0.8933629989624023,0.0,93.0
1.800100326538086,-0.9369874596595764,-0.04630553349852562,25.0
1.2871237993240356,-0.8959438800811768,-0.07150555402040482,92.0
1.7917567491531372,-0.9330610632896423,-0.13742946088314056,25.0
1.2891064882278442,-0.8983240723609924,-0.13792389631271362,96.0
1.790799617767334,-0.9333652257919312,-0.22716255486011505,26.0
1.3038355112075806,-0.9099651575088501,-0.2160593420267105,75.0
1.8001518249511719,-0.9378467798233032,-0.34780824184417725,32.0
1.2885138988494873,-0.9025326371192932,-0.4402143657207489,86.0
1.8036096096038818,-0.9384639859199524,-0.4576627314090729,32.0
1.3030647039413452,-0.9144235253334045,-0.5385479927062988,95.0
1.7308189868927002,-0.896580696105957,-0.77423095703125,2.0
1.0744820833206177,-0.7590232491493225,-0.6800633072853088,100.0
1.627103328704834,-0.8409154415130615,-0.8439177870750427,3.0
nan,nan,nan,0.0
nan,nan,nan,0.0
1.1210299730300903,-0.8003822565078735,-1.0223711729049683,7.0
1.528566837310791,-0.7753662467002869,-1.4214727878570557,10.0
1.1089380979537964,-0.7988729476928711,-1.2731832265853882,4.0
1.3581453561782837,-0.6817383766174316,-1.5756280422210693,45.0
1.0512244701385498,-0.7642245888710022,-1.4940274953842163,19.0
1.1030230522155762,-0.5480259656906128,-1.5710599422454834,21.0
0.9315452575683594,-0.6816786527633667,-1.5752344131469727,56.0
3.460555076599121,-1.7820184230804443,1.0292959213256836,4.0
1.820610761642456,-1.2655102014541626,0.5050330758094788,101.0
2.2554423809051514,-1.1653707027435303,0.4830673933029175,96.0
1.8197191953659058,-1.2644401788711548,0.3411425054073334,88.0
2.3623340129852295,-1.223577618598938,0.32051151990890503,8.0
1.7821985483169556,-1.2383288145065308,0.20409849286079407,86.0
2.5749051570892334,-1.3351373672485352,0.1993751972913742,8.0
1.2879050970077515,-0.8948203921318054,0.07150555402040482,89.0
1.7917149066925049,-0.9314441084861755,0.04607342556118965,25.0
1.2847023010253906,-0.8935872912406921,0.0,93.0
1.800100326538086,-0.9369874596595764,-0.04630553349852562,25.0
1.2869672775268555,-0.8961685299873352,-0.07150555402040482,92.0
1.7915937900543213,-0.933373749256134,-0.13742946088314056,25.0
1.2889498472213745,-0.8985490798950195,-0.13792389631271362,96.0
1.790799617767334,-0.9333652257919312,-0.22716255486011505,26.0
1.3038355112075806,-0.9099651575088501,-0.2160593420267105,75.0
1.8001518249511719,-0.9378467798233032,-0.34780824184417725,32.0
1.2883563041687012,-0.9027575850486755,-0.4402143657207489,86.0
1.8034459352493286,-0.9387786984443665,-0.4576627314090729,32.0
1.3029052019119263,-0.9146508574485779,-0.5385479927062988,95.0
1.73066246509552,-0.8968827724456787,-0.77423095703125,2.0
1.0743496417999268,-0.7592107057571411,-0.6800633072853088,100.0
1.626956582069397,-0.8411994576454163,-0.8439177870750427,3.0
nan,nan,nan,0.0
nan,nan,nan,0.0
1.1210299730300903,-0.8003822565078735,-1.0223711729049683,7.0
1.528566837310791,-0.7753662467002869,-1.4214727878570557,10.0
1.108798623085022,-0.7990664839744568,-1.2731832265853882,4.0
1.358026385307312,-0.6819754838943481,-1.5756280422210693,45.0
1.051091194152832,-0.7644079923629761,-1.4940274953842163,19.0
1.1029272079467773,-0.5482184290885925,-1.5710599422454834,21.0
0.9314262866973877,-0.6818413138389587,-1.5752344131469727,56.0
3.385648488998413,-1.7742607593536377,1.0106048583984375,4.0
nan,nan,nan,0.0
2.2535669803619385,-1.1849013566970825,0.4844881594181061,7.0
1.7118000984191895,-1.2075612545013428,0.3222116231918335,99.0
2.3425357341766357,-1.2346751689910889,0.3189968168735504,53.0
1.7082648277282715,-1.205076813697815,0.1964864283800125,98.0
2.545424699783325,-1.34307062625885,0.1978135108947754,8.0
1.2712757587432861,-0.8968015909194946,0.07092326134443283,87.0
1.7518441677093506,-0.9267508387565613,0.04520301893353462,26.0
1.272154688835144,-0.8984224200248718,0.0,91.0
1.76240873336792,-0.9335039258003235,-0.04549315199255943,27.0
1.2662616968154907,-0.8952433466911316,-0.0706903412938118,91.0
1.7606143951416016,-0.9333497881889343,-0.13553030788898468,27.0
1.2621827125549316,-0.8933361172676086,-0.13568848371505737,96.0
1.7687047719955444,-0.9380282759666443,-0.22517238557338715,28.0
1.2750880718231201,-0.9034931659698486,-0.21227487921714783,77.0
1.765088677406311,-0.9357423186302185,-0.34222614765167236,35.0
1.274037480354309,-0.9063694477081299,-0.43746304512023926,84.0
1.7622045278549194,-0.9334511160850525,-0.44873273372650146,33.0
1.2809505462646484,-0.9129586815834045,-0.5320102572441101,94.0
1.7262516021728516,-0.910322368144989,-0.7751681804656982,2.0
nan,nan,nan,0.0
1.6128791570663452,-0.8486168384552002,-0.8396663069725037,3.0
1.075422763824463,-0.7740815877914429,-0.7798000574111938,18.0
nan,nan,nan,0.0
1.1088407039642334,-0.8037028908729553,-1.016312599182129,4.0
1.502616047859192,-0.7758147716522217,-1.40208899974823,10.0
1.0928573608398438,-0.7994914650917053,-1.261090636253357,3.0
1.3531115055084229,-0.6916757225990295,-1.5756280422210693,45.0
1.046891689300537,-0.7728719711303711,-1.4959355592727661,24.0
1.0949153900146484,-0.5540552735328674,-1.565093994140625,15.0
0.9242028594017029,-0.6867554783821106,-1.571158766746521,52.0
3.385648488998413,-1.7742607593536377,1.0106048583984375,4.0
nan,nan,nan,0.0
2.2535669803619385,-1.1849013566970825,0.4844881594181061,7.0
1.7118000984191895,-1.2075612545013428,0.3222116231918335,99.0
2.3425357341766357,-1.2346751689910889,0.3189968168735504,53.0
1.7082648277282715,-1.205076813697815,0.1964864283800125,98.0
2.545424699783325,-1.34307062625885,0.1978135108947754,8.0
1.2712757587432861,-0.8968015909194946,0.07092326134443283,87.0
1.7518441677093506,-0.9267508387565613,0.04520301893353462,26.0
1.2723115682601929,-0.8982003331184387,0.0,91.0
1.76240873336792,-0.9335039258003235,-0.04549315199255943,27.0
1.2664179801940918,-0.8950223326683044,-0.0706903412938118,91.0
1.760777235031128,-0.9330424666404724,-0.13553030788898468,27.0
1.262338638305664,-0.8931158185005188,-0.13568848371505737,96.0
1.7687047719955444,-0.9380282759666443,-0.22517238557338715,28.0
1.2750880718231201,-0.9034931659698486,-0.21227487921714783,77.0
1.765088677406311,-0.9357423186302185,-0.34222614765167236,35.0
1.274195671081543,-0.9061470627784729,-0.43746304512023926,84.0
1.7623673677444458,-0.9331435561180115,-0.44873273372650146,33.0
1.2811098098754883,-0.912735104560852,-0.5320102572441101,94.0
1.7264103889465332,-0.9100210666656494,-0.7751681804656982,2.0
nan,nan,nan,0.0
1.6130273342132568,-0.848335325717926,-0.8396663069725037,3.0
1.075422763824463,-0.7740815877914429,-0.7798000574111938,18.0
nan,nan,nan,0.0
1.1088407039642334,-0.8037028908729553,-1.016312599182129,4.0
1.502616047859192,-0.7758147716522217,-1.40208899974823,10.0
1.0929968357086182,-0.7993007302284241,-1.261090636253357,3.0
1.3532321453094482,-0.6914395689964294,-1.5756280422210693,45.0
1.047026515007019,-0.7726893424987793,-1.4959355592727661,24.0
1.0950120687484741,-0.5538642406463623,-1.565093994140625,15.0
0.9243226647377014,-0.6865941286087036,-1.571158766746521,52.0
nan,nan,nan,0.0
nan,nan,nan,0.0
2.1802663803100586,-1.165941596031189,0.4702802896499634,27.0
1.7254029512405396,-1.2353214025497437,0.32646140456199646,99.0
nan,nan,nan,0.0
1.685655951499939,-1.206817388534546,0.1948212832212448,97.0
2.524993419647217,-1.3549213409423828,0.1969459056854248,8.0
1.2467273473739624,-0.8925458192825317,0.06987513601779938,89.0
1.7211045026779175,-0.9259623885154724,0.04456472396850586,28.0
1.2457079887390137,-0.8924722671508789,0.0,91.0
1.733830451965332,-0.9339590668678284,-0.04491288587450981,28.0
1.24797523021698,-0.8950916528701782,-0.0699915960431099,90.0
1.7212659120559692,-0.9276050329208374,-0.13294054567813873,29.0
1.2419289350509644,-0.8917208909988403,-0.13412371277809143,95.0
nan,nan,nan,0.0
1.2607158422470093,-0.9065788984298706,-0.21089869737625122,79.0
1.7259736061096191,-0.9305506944656372,-0.33578523993492126,38.0
1.2561569213867188,-0.9065643548965454,-0.4333360195159912,88.0
1.7321923971176147,-0.9327448010444641,-0.44259336590766907,35.0
1.2613179683685303,-0.9119471907615662,-0.526289701461792,87.0
1.7057069540023804,-0.914405107498169,-0.768606960773468,2.0
nan,nan,nan,0.0
1.5851004123687744,-0.8478670716285706,-0.8279747366905212,3.0
1.0561891794204712,-0.7714495062828064,-0.7694544792175293,18.0
nan,nan,nan,0.0
1.0968025922775269,-0.806698739528656,-1.010254144668579,5.0
1.475183129310608,-0.7747901082038879,-1.3810900449752808,11.0
1.0902884006500244,-0.8090711832046509,-1.2645456790924072,3.0
1.3483721017837524,-0.7008699774742126,-1.5756280422210693,44.0
1.0506430864334106,-0.7867770195007324,-1.5092921257019043,25.0
1.0938163995742798,-0.5628746151924133,-1.5690714120864868,12.0
0.919506847858429,-0.6930303573608398,-1.571158766746521,55.0
nan,nan,nan,0.0
nan,nan,nan,0.0
2.1802663803100586,-1.165941596031189,0.4702802896499634,27.0
1.7254029512405396,-1.2353214025497437,0.32646140456199646,99.0
nan,nan,nan,0.0
1.685655951499939,-1.206817388534546,0.1948212832212448,97.0
2.524993419647217,-1.3549213409423828,0.1969459056854248,8.0
1.2468831539154053,-0.8923282027244568,0.06987513601779938,89.0
1.7211045026779175,-0.9259623885154724,0.04456472396850586,28.0
1.2457079887390137,-0.8924722671508789,0.0,91.0
1.733993411064148,-0.9336563944816589,-0.04491288587450981,28.0
1.24797523021698,-0.8950916528701782,-0.0699915960431099,90.0
1.7212659120559692,-0.9276050329208374,-0.13294054567813873,29.0
1.2419289350509644,-0.8917208909988403,-0.13412371277809143,95.0
nan,nan,nan,0.0
1.2608741521835327,-0.9063588380813599,-0.21089869737625122,79.0
1.7261359691619873,-0.9302494525909424,-0.33578523993492126,38.0
1.2561569213867188,-0.9065643548965454,-0.4333360195159912,88.0
1.7321923971176147,-0.9327448010444641,-0.44259336590766907,35.0
1.2613179683685303,-0.9119471907615662,-0.526289701461792,87.0
1.7057069540023804,-0.914405107498169,-0.768606960773468,2.0
nan,nan,nan,0.0
1.5852484703063965,-0.847590446472168,-0.8279747366905212,3.0
1.056323766708374,-0.7712651491165161,-0.7694544792175293,18.0
nan,nan,nan,0.0
1.0969432592391968,-0.8065073490142822,-1.010254144668579,5.0
1.4753183126449585,-0.7745326161384583,-1.3810900449752808,11.0
1.0902884006500244,-0.8090711832046509,-1.2645456790924072,3.0
1.3483721017837524,-0.7008699774742126,-1.5756280422210693,44.0
1.0507802963256836,-0.7865936756134033,-1.5092921257019043,25.0
1.0939147472381592,-0.562683641910553,-1.5690714120864868,12.0
0.9196277856826782,-0.6928699016571045,-1.571158766746521,55.0
nan,nan,nan,0.0
nan,nan,nan,0.0
2.148542881011963,-1.1678831577301025,0.4650707542896271,30.0
1.6850028038024902,-1.2237801551818848,0.32027989625930786,64.0
nan,nan,nan,0.0
1.6472212076187134,-1.1962950229644775,0.19125314056873322,81.0
2.495997905731201,-1.3613460063934326,0.195384219288826,7.0
1.2327052354812622,-0.8949147462844849,0.06940930336713791,87.0
1.6906237602233887,-0.9244955778121948,0.0439264252781868,30.0
1.2254626750946045,-0.8906223177909851,0.0,89.0
1.6946889162063599,-0.9274800419807434,-0.04404247924685478,29.0
1.2236982583999634,-0.8903167843818665,-0.06894347071647644,88.0
1.693023443222046,-0.9273457527160645,-0.13121405243873596,30.0
1.2217562198638916,-0.8898717164993286,-0.1325589418411255,92.0
1.6990998983383179,-0.9310564994812012,-0.21778036653995514,30.0
1.2386857271194458,-0.9032261371612549,-0.2081463485956192,80.0
1.6938259601593018,-0.9278118014335632,-0.3306325376033783,39.0
1.2383331060409546,-0.9065582156181335,-0.42920902371406555,92.0
1.693716049194336,-0.9270046949386597,-0.434221476316452,37.0
1.2398561239242554,-0.9093109369277954,-0.5197519063949585,90.0
1.7014797925949097,-0.9271004796028137,-0.7695443034172058,9.0
nan,nan,nan,0.0
1.585411548614502,-0.861594021320343,-0.8311633467674255,3.0
1.0802383422851562,-0.8001387119293213,-0.79143887758255,21.0
nan,nan,nan,0.0
1.1025736331939697,-0.822299063205719,-1.020856499671936,8.0
1.4464236497879028,-0.7720199227333069,-1.358475685119629,13.0
1.0660138130187988,-0.8023094534873962,-1.242087960243225,5.0
1.3359827995300293,-0.7060414552688599,-1.5665308237075806,40.0
1.0505396127700806,-0.7976459264755249,-1.516924500465393,26.0
1.081993579864502,-0.5659250020980835,-1.557139277458191,10.0
0.9137418866157532,-0.6982312798500061,-1.56912100315094,54.0
nan,nan,nan,0.0
nan,nan,nan,0.0
2.148542881011963,-1.1678831577301025,0.4650707542896271,30.0
1.6850028038024902,-1.2237801551818848,0.32027989625930786,64.0
nan,nan,nan,0.0
1.6472212076187134,-1.1962950229644775,0.19125314056873322,81.0
2.495997905731201,-1.3613460063934326,0.195384219288826,7.0
1.2325490713119507,-0.895129919052124,0.06940930336713791,87.0
1.6906237602233887,-0.9244955778121948,0.0439264252781868,30.0
1.2254626750946045,-0.8906223177909851,0.0,89.0
1.6945269107818604,-0.9277758002281189,-0.04404247924685478,29.0
1.2236982583999634,-0.8903167843818665,-0.06894347071647644,88.0
1.693023443222046,-0.9273457527160645,-0.13121405243873596,30.0
1.2217562198638916,-0.8898717164993286,-0.1325589418411255,92.0
1.6989374160766602,-0.9313530325889587,-0.21778036653995514,30.0
1.2385281324386597,-0.9034423828125,-0.2081463485956192,80.0
1.6936638355255127,-0.9281073808670044,-0.3306325376033783,39.0
1.2383331060409546,-0.9065582156181335,-0.42920902371406555,92.0
1.693716049194336,-0.9270046949386597,-0.434221476316452,37.0
1.2398561239242554,-0.9093109369277954,-0.5197519063949585,90.0
1.7014797925949097,-0.9271004796028137,-0.7695443034172058,9.0
nan,nan,nan,0.0
1.5852612257003784,-0.8618707656860352,-0.8311633467674255,3.0
1.0800986289978027,-0.8003271818161011,-0.79143887758255,21.0
nan,nan,nan,0.0
1.1024301052093506,-0.8224915266036987,-1.020856499671936,8.0
1.4462887048721313,-0.7722722887992859,-1.358475685119629,13.0
1.0660138130187988,-0.8023094534873962,-1.242087960243225,5.0
1.3359827995300293,-0.7060414552688599,-1.5665308237075806,40.0
1.0504003763198853,-0.797829270362854,-1.516924500465393,26.0
1.081894874572754,-0.5661138296127319,-1.557139277458191,10.0
0.9136199951171875,-0.698390781879425,-1.56912100315094,54.0
3.007312774658203,-1.6567803621292114,0.9068374037742615,8.0
1.6474422216415405,-1.2145333290100098,0.4655773937702179,111.0
2.1102421283721924,-1.1662614345550537,0.4584403932094574,30.0
1.6823786497116089,-1.2399163246154785,0.32143890857696533,64.0
2.1144015789031982,-1.1714175939559937,0.2908233106136322,17.0
1.612805724143982,-1.1885440349578857,0.1881607323884964,101.0
2.562807321548462,-1.4210033416748047,0.2014574408531189,7.0
1.208195686340332,-0.8903533220291138,0.06836117804050446,89.0
1.6622687578201294,-0.9241586923599243,0.04334615543484688,31.0
1.1991159915924072,-0.8842887878417969,0.0,86.0
1.6639701128005981,-0.9262418746948242,-0.04340418428182602,31.0
1.2054113149642944,-0.8899211287498474,-0.06824471056461334,88.0
1.6538008451461792,-0.920982837677002,-0.1286243051290512,33.0
1.2055124044418335,-0.8909652233123779,-0.13144123554229736,94.0
1.607720971107483,-0.8961400985717773,-0.20669233798980713,25.0
1.2242379188537598,-0.906162679195404,-0.2067701667547226,83.0
1.659153938293457,-0.924362063407898,-0.325050413608551,43.0
1.2184827327728271,-0.9051288366317749,-0.4243941903114319,91.0
1.6637625694274902,-0.9258024096488953,-0.42808207869529724,38.0
1.2126511335372925,-0.9023982882499695,-0.5107625126838684,88.0
1.6604763269424438,-0.9199091196060181,-0.7536097764968872,8.0
1.0687530040740967,-0.8006712198257446,-0.6906160116195679,12.0
nan,nan,nan,0.0
1.057407021522522,-0.7949601411819458,-0.7785069346427917,102.0
1.2160791158676147,-0.6666982173919678,-0.9150072336196899,71.0
1.095077633857727,-0.8289645314216614,-1.0193419456481934,10.0
1.4240777492523193,-0.7732750773429871,-1.342322587966919,14.0
nan,nan,nan,0.0
1.3355568647384644,-0.717776894569397,-1.5719890594482422,43.0
1.0563013553619385,-0.8140411972999573,-1.5340973138809204,25.0
1.0832732915878296,-0.5764858722686768,-1.565093994140625,10.0
0.9121484756469727,-0.7074231505393982,-1.5752344131469727,58.0
3.007312774658203,-1.6567803621292114,0.9068374037742615,8.0
1.6474422216415405,-1.2145333290100098,0.4655773937702179,111.0
2.1102421283721924,-1.1662614345550537,0.4584403932094574,30.0
1.6823786497116089,-1.2399163246154785,0.32143890857696533,64.0
2.1144015789031982,-1.1714175939559937,0.2908233106136322,17.0
1.612805724143982,-1.1885440349578857,0.1881607323884964,101.0
2.562807321548462,-1.4210033416748047,0.2014574408531189,7.0
1.208195686340332,-0.8903533220291138,0.06836117804050446,89.0
1.6622687578201294,-0.9241586923599243,0.04334615543484688,31.0
1.1989617347717285,-0.8844980597496033,0.0,86.0
1.6639701128005981,-0.9262418746948242,-0.04340418428182602,31.0
1.2052558660507202,-0.8901315927505493,-0.06824471056461334,88.0
1.6536400318145752,-0.9212714433670044,-0.1286243051290512,33.0
1.2053569555282593,-0.8911756277084351,-0.13144123554229736,94.0
1.607720971107483,-0.8961400985717773,-0.20669233798980713,25.0
1.2242379188537598,-0.906162679195404,-0.2067701667547226,83.0
1.659153938293457,-0.924362063407898,-0.325050413608551,43.0
1.218324899673462,-0.9053415060043335,-0.4243941903114319,91.0
1.6636009216308594,-0.9260927438735962,-0.42808207869529724,38.0
1.212493658065796,-0.9026098847389221,-0.5107625126838684,88.0
1.660315752029419,-0.920198917388916,-0.7536097764968872,8.0
1.0686131715774536,-0.8008577227592468,-0.6906160116195679,12.0
nan,nan,nan,0.0
1.057407021522522,-0.7949601411819458,-0.7785069346427917,102.0
1.2160791158676147,-0.6666982173919678,-0.9150072336196899,71.0
1.095077633857727,-0.8289645314216614,-1.0193419456481934,10.0
1.4240777492523193,-0.7732750773429871,-1.342322587966919,14.0
nan,nan,nan,0.0
1.335431456565857,-0.7180100083351135,-1.5719890594482422,43.0
1.056159257888794,-0.8142256140708923,-1.5340973138809204,25.0
1.0831726789474487,-0.5766749382019043,-1.565093994140625,10.0
0.912024974822998,-0.7075822949409485,-1.5752344131469727,58.0
2.982731342315674,-1.6711825132369995,0.9029702544212341,9.0
nan,nan,nan,0.0
2.0782904624938965,-1.1681259870529175,0.4532308578491211,30.0
1.6813679933547974,-1.257849931716919,0.3229843080043793,99.0
2.086496114730835,-1.1755743026733398,0.2880968749523163,19.0
nan,nan,nan,0.0
nan,nan,nan,0.0
1.1898081302642822,-0.8899838328361511,0.06766242533922195,86.0
1.6251319646835327,-0.9188476800918579,0.04253377765417099,32.0
1.1826070547103882,-0.885547935962677,0.0,84.0
1.6290037631988525,-0.9221553206443787,-0.042649831622838974,33.0
1.1828874349594116,-0.8867267966270447,-0.0673130452632904,87.0
1.625289797782898,-0.9208148717880249,-0.12689779698848724,34.0
1.1810446977615356,-0.8863009214401245,-0.1294293850660324,95.0
1.5926176309585571,-0.9027338624000549,-0.20555511116981506,38.0
1.197946310043335,-0.8999977111816406,-0.20332974195480347,88.0
1.6289087533950806,-0.9228869676589966,-0.32032710313796997,46.0
1.1907308101654053,-0.8980846405029297,-0.4168280065059662,87.0
1.6250981092453003,-0.9200069308280945,-0.4197102189064026,42.0
1.1984721422195435,-0.9055545926094055,-0.5074936747550964,95.0
1.6213598251342773,-0.9138918519020081,-0.7386125326156616,8.0
1.0663650035858154,-0.811163604259491,-0.6929610371589661,12.0
1.505651593208313,-0.8468537926673889,-0.7950258255004883,2.0
1.0550884008407593,-0.805108368396759,-0.7810932993888855,100.0
1.2185183763504028,-0.6794018745422363,-0.9206121563911438,45.0
nan,nan,nan,0.0
1.3934293985366821,-0.7696529030799866,-1.318092942237854,16.0
nan,nan,nan,0.0
1.3242355585098267,-0.724268913269043,-1.564711332321167,39.0
1.0541160106658936,-0.8247564435005188,-1.5398215055465698,24.0
1.0763503313064575,-0.5829751491546631,-1.5611166954040527,9.0
0.908073902130127,-0.7149892449378967,-1.5772721767425537,53.0
2.982731342315674,-1.6711825132369995,0.9029702544212341,9.0
nan,nan,nan,0.0
2.0782904624938965,-1.1681259870529175,0.4532308578491211,30.0
1.6813679933547974,-1.257849931716919,0.3229843080043793,99.0
2.086496114730835,-1.1755743026733398,0.2880968749523163,19.0
nan,nan,nan,0.0
nan,nan,nan,0.0
1.1898081302642822,-0.8899838328361511,0.06766242533922195,86.0
1.6251319646835327,-0.9188476800918579,0.04253377765417099,32.0
1.182761549949646,-0.8853416442871094,0.0,84.0
1.6290037631988525,-0.9221553206443787,-0.042649831622838974,33.0
1.183042287826538,-0.886520266532898,-0.0673130452632904,87.0
1.6254502534866333,-0.920531153678894,-0.12689779698848724,34.0
1.181199312210083,-0.8860946893692017,-0.1294293850660324,95.0
1.5926176309585571,-0.9027338624000549,-0.20555511116981506,38.0
1.197946310043335,-0.8999977111816406,-0.20332974195480347,88.0
1.6289087533950806,-0.9228869676589966,-0.32032710313796997,46.0
1.1908875703811646,-0.8978768587112427,-0.4168280065059662,87.0
1.6252586841583252,-0.9197232723236084,-0.4197102189064026,42.0
1.1986300945281982,-0.9053453803062439,-0.5074936747550964,95.0
1.6215193271636963,-0.9136089086532593,-0.7386125326156616,8.0
1.0665065050125122,-0.8109775185585022,-0.6929610371589661,12.0
1.5057992935180664,-0.8465909361839294,-0.7950258255004883,2.0
1.0550884008407593,-0.805108368396759,-0.7810932993888855,100.0
1.2185183763504028,-0.6794018745422363,-0.9206121563911438,45.0
nan,nan,nan,0.0
1.3934293985366821,-0.7696529030799866,-1.318092942237854,16.0
nan,nan,nan,0.0
1.3243621587753296,-0.7240378260612488,-1.564711332321167,39.0
1.0542598962783813,-0.8245725035667419,-1.5398215055465698,24.0
1.0764520168304443,-0.5827872157096863,-1.5611166954040527,9.0
0.9081986546516418,-0.714830756187439,-1.5772721767425537,53.0
2.941593885421753,-1.6752512454986572,0.8939470648765564,8.0
1.661120057106018,-1.2613003253936768,0.474595844745636,107.0
2.0466253757476807,-1.1692365407943726,0.4480213224887848,32.0
1.6587846279144287,-1.2590893507003784,0.32027989625930786,98.0
2.045917510986328,-1.1716465950012207,0.28355273604393005,26.0
nan,nan,nan,0.0
nan,nan,nan,0.0
1.1656824350357056,-0.8846547603607178,0.0666142925620079,89.0
1.599160075187683,-0.9189884066581726,0.04201153665781021,34.0
1.158653736114502,-0.8799424171447754,0.0,85.0
1.598678708076477,-0.919825553894043,-0.04201153665781021,34.0
1.1649099588394165,-0.8856716752052307,-0.0666142925620079,90.0
1.5995160341262817,-0.9206842184066772,-0.1253439486026764,34.0
1.1631096601486206,-0.8852535486221313,-0.12808814644813538,95.0
1.5927380323410034,-0.9175413846969604,-0.20640802383422852,96.0
1.1798313856124878,-0.8993149995803833,-0.20126548409461975,91.0
1.5967953205108643,-0.9195218086242676,-0.3151743710041046,50.0
1.176962971687317,-0.9003162384033203,-0.41407665610313416,94.0
1.5997719764709473,-0.9201375842094421,-0.4146870970726013,45.0
1.1735485792160034,-0.8992918729782104,-0.49932143092155457,95.0
1.605037808418274,-0.9191619157791138,-0.7339259386062622,37.0
1.0765314102172852,-0.8305692672729492,-0.7035138010978699,12.0
nan,nan,nan,0.0
1.0629574060440063,-0.8229570984840393,-0.79143887758255,87.0
1.2047295570373535,-0.6828056573867798,-0.9136059880256653,91.0
1.3464142084121704,-1.0502654314041138,-1.2737987041473389,66.0
1.3863567113876343,-0.7784308791160583,-1.316477656364441,16.0
1.3154886960983276,-1.035157322883606,-1.566861867904663,34.0
1.3222756385803223,-0.7349257469177246,-1.5683503150939941,39.0
1.0585839748382568,-0.8399657607078552,-1.5550861358642578,28.0
1.0683698654174805,-0.5881068706512451,-1.5551505088806152,8.0
0.8986683487892151,-0.7175278663635254,-1.56912100315094,55.0
2.941593885421753,-1.6752512454986572,0.8939470648765564,8.0
1.661120057106018,-1.2613003253936768,0.474595844745636,107.0
2.0466253757476807,-1.1692365407943726,0.4480213224887848,32.0
1.6587846279144287,-1.2590893507003784,0.32027989625930786,98.0
2.045917510986328,-1.1716465950012207,0.28355273604393005,26.0
nan,nan,nan,0.0
nan,nan,nan,0.0
1.1658369302749634,-0.8844512701034546,0.0666142925620079,89.0
1.599160075187683,-0.9189884066581726,0.04201153665781021,34.0
1.158653736114502,-0.8799424171447754,0.0,85.0
1.5988391637802124,-0.9195465445518494,-0.04201153665781021,34.0
1.1649099588394165,-0.8856716752052307,-0.0666142925620079,90.0
1.5995160341262817,-0.9206842184066772,-0.1253439486026764,34.0
1.1631096601486206,-0.8852535486221313,-0.12808814644813538,95.0
1.5928981304168701,-0.917263388633728,-0.20640802383422852,96.0
1.179988145828247,-0.8991090655326843,-0.20126548409461975,91.0
1.5969558954238892,-0.9192430973052979,-0.3151743710041046,50.0
1.176962971687317,-0.9003162384033203,-0.41407665610313416,94.0
1.5997719764709473,-0.9201375842094421,-0.4146870970726013,45.0
1.1735485792160034,-0.8992918729782104,-0.49932143092155457,95.0
1.605037808418274,-0.9191619157791138,-0.7339259386062622,37.0
1.076676368713379,-0.8303813338279724,-0.7035138010978699,12.0
nan,nan,nan,0.0
1.0631009340286255,-0.8227714896202087,-0.79143887758255,87.0
1.2048486471176147,-0.6825953722000122,-0.9136059880256653,91.0
1.34659743309021,-1.0500303506851196,-1.2737987041473389,66.0
1.3864926099777222,-0.778188943862915,-1.316477656364441,16.0
1.3154886960983276,-1.035157322883606,-1.566861867904663,34.0
1.3222756385803223,-0.7349257469177246,-1.5683503150939941,39.0
1.0587306022644043,-0.839780867099762,-1.5550861358642578,28.0
1.0684726238250732,-0.5879204273223877,-1.5551505088806152,8.0
0.898793637752533,-0.7173709869384766,-1.56912100315094,55.0
2.9050228595733643,-1.680737853050232,0.8862128257751465,8.0
1.623573660850525,-1.2502562999725342,0.466141015291214,108.0
2.1299664974212646,-1.2360284328460693,0.4683859050273895,9.0
1.6364866495132446,-1.2597899436950684,0.31757548451423645,99.0
2.0228710174560547,-1.1768258810043335,0.2814321517944336,49.0
nan,nan,nan,0.0
nan,nan,nan,0.0
1.1459507942199707,-0.8816858530044556,0.06579908728599548,87.0
1.5626263618469238,-0.9122512340545654,0.04119915887713432,35.0
1.1447241306304932,-0.8816947340965271,0.0,83.0
1.5644673109054565,-0.9140545129776001,-0.041257183998823166,35.0
1.1430515050888062,-0.8813576102256775,-0.06568262726068497,90.0
1.563046932220459,-0.91396564245224,-0.12292684614658356,37.0
1.1472129821777344,-0.8855279684066772,-0.12697045505046844,96.0
1.565161943435669,-0.9155719876289368,-0.20356494188308716,37.0
1.164055347442627,-0.899535059928894,-0.1995452493429184,86.0
1.567257046699524,-0.9164480566978455,-0.31045106053352356,52.0
1.151839256286621,-0.8935455679893494,-0.40719830989837646,92.0
